23.553478000000013 1626.923429 576.1884
23.520376000000013 1626.84823 576.0728
23.544178000000013 1626.903928 576.135002
24.68607700000001 1633.295728 576.168594
25.054676000000015 1634.401828 578.5783
24.867778000000015 1633.342329 578.6324999999999
23.956676000000012 1628.174729 578.711296
24.749576000000012 1628.578529 576.322899
26.611578000000012 1636.186229 572.878395
27.969976000000013 1636.672529 569.584999
27.92437700000001 1636.694729 569.584999
27.774578000000012 1636.724629 569.586601
27.676376000000012 1636.694829 569.590302
27.71107800000001 1636.717829 569.588699
27.64157600000001 1636.671229 569.591999
27.808576000000013 1636.615329 567.0224
27.654876000000012 1636.467529 567.029099
27.596376000000014 1636.626229 569.595501
28.37807600000001 1636.204029 558.2393
28.06397600000001 1636.532629 564.0984
27.544979000000012 1636.576729 569.599899
27.49137700000001 1636.708829 571.0578
27.107978000000013 1636.131029 569.630699
27.044378000000012 1636.233729 571.091003
27.18657800000001 1636.629229 572.4814
28.02877600000001 1636.574529 569.59
28.006479000000013 1636.620529 570.376801
28.047475000000013 1636.510729 571.176598
28.032776000000013 1636.499629 570.3842999999999
28.02357800000001 1636.574229 570.379601
28.02917600000001 1636.550229 570.380699
25.66377800000001 1633.723029 571.335304
25.724777000000014 1633.776329 572.530106
26.875679000000012 1635.100729 571.2677
27.841776000000014 1636.239629 572.380295
27.996276000000012 1636.413429 571.182899
24.74497600000001 1632.687929 572.573204
23.088379000000007 1630.8566289999999 572.9953
23.189176000000007 1631.055829 572.6143950000001
24.21237900000001 1632.012228 572.970406
24.15497600000001 1632.058429 572.5924
21.00657600000001 1628.618829 573.335396
20.07927700000001 1627.478129 573.600494
19.19077600000001 1626.352529 573.7827
18.509479000000013 1624.99143 573.9182969999999
18.78117700000001 1625.179529 573.934402
18.321077000000013 1625.258428 573.868698
17.49137700000001 1624.692228 573.818001
15.994876000000012 1623.44313 573.749001
16.57477700000001 1623.751129 573.791702
17.69887500000001 1624.432628 573.8694
15.40227800000001 1623.161129 573.702095
14.75667700000001 1619.610229 573.522797
14.60717700000001 1619.814029 573.522102
19.078579000000012 1622.356328 573.879501
19.49967500000001 1619.753028 574.576401
21.064676000000013 1621.261329 574.698196
21.425876000000013 1621.607128 574.757401
22.00507700000001 1623.463928 574.900505
22.282276000000014 1625.035028 574.939705
22.400577000000013 1625.01213 575.010201
22.460277000000012 1625.185428 575.0299
22.500576000000013 1625.251428 575.048195
22.403076000000013 1625.316629 574.976501
22.35417700000001 1625.238929 574.959198
23.925478000000012 1623.904529 576.2724000000001
22.21307900000001 1622.185529 576.949699
23.801675000000014 1623.683628 577.463402
23.00157700000001 1622.80953 578.631897
22.324978000000012 1622.154329 578.606003
28.027778000000012 1636.460629 571.180199
26.491977000000013 1636.322829 573.201599
25.95717600000001 1635.514129 572.914696
25.160976000000012 1634.693129 572.949501
22.397779000000007 1631.912629 573.002396
19.52897600000001 1630.285929 573.782196
20.47697800000001 1630.702929 573.593399
19.73857700000001 1630.049029 573.576401
20.65127900000001 1630.516129 573.317902
20.03167700000001 1629.726629 572.965805
19.071077000000013 1630.812028 573.935699
20.023376000000013 1631.198928 573.920601
19.79327700000001 1631.452929 573.950302
19.686878000000014 1633.593329 575.006096
19.865778000000017 1633.680529 574.903397
18.992077000000013 1630.607129 575.203903
19.31217500000001 1630.549328 574.962799
19.468376000000017 1633.551429 575.191399
19.421775000000014 1633.553729 575.250999
19.077478000000017 1633.617029 573.859299
19.259779000000016 1633.562129 575.467606
12.920076000000012 1634.467029 573.4137949999999
14.298877000000012 1635.080029 574.291496
15.685877000000012 1635.696929 574.373001
16.625976000000012 1636.116729 573.618996
16.283178000000017 1635.963229 574.510696
12.912778000000012 1634.462829 574.2067030000001
12.281777000000012 1634.183229 573.359596
12.718176000000012 1634.376429 574.205299
19.101677000000016 1633.603829 575.8563
18.823677000000014 1633.773629 573.842705
18.925077000000016 1633.707929 573.849701
18.922178000000017 1633.698729 576.526299
18.673477000000016 1633.952729 576.638298
18.730676000000017 1633.882129 573.8339
18.613678000000014 1634.048929 573.822296
18.535778000000015 1634.288229 573.808998
18.584278000000015 1634.108829 576.720596
18.526277000000015 1634.361828 573.806198
17.763977000000015 1635.729829 576.795403
18.552478000000015 1634.241728 576.783096
17.417577000000016 1636.077629 576.476501
17.510877000000015 1636.011929 576.526596
17.389877000000016 1636.091329 576.467705
17.571277000000016 1635.968829 576.559601
17.603275000000014 1635.938229 576.587502
17.764978000000017 1635.735029 573.7049030000001
17.638076000000016 1635.904429 576.6175000000001
17.443678000000013 1636.067529 573.670898
17.38857600000001 1636.091129 573.6659999999999
17.165876000000015 1636.172429 575.637596
17.211677000000012 1636.164829 573.652603
17.328077000000015 1636.116429 576.455605
17.165477000000013 1636.175229 573.648903
17.075878000000017 1636.186329 575.301201
17.141777000000012 1636.177429 573.647598
17.107977000000016 1636.181029 575.419899
17.141077000000017 1636.175829 575.544205
16.91477700000001 1636.190329 573.633202
16.847278000000014 1636.180329 573.630096
16.866777000000013 1636.185929 573.6306
16.625476000000017 1636.115329 574.705696
16.820078000000017 1636.176129 574.884499
17.02897600000001 1628.796229 573.813301
16.084276000000013 1628.586429 573.803299
17.744276000000013 1629.727728 573.889801
18.130975000000014 1629.600829 573.8657000000001
17.09647700000001 1629.252729 573.859505
18.876478000000013 1630.639629 573.931595
15.500777000000012 1628.544029 573.764305
19.28517700000001 1625.902929 574.755096
19.683378000000012 1630.481429 574.8153
20.080377000000013 1630.411728 574.773804
23.09657800000001 1626.137628 575.423798
23.14627600000001 1626.214029 575.4825969999999
23.240978000000013 1626.358329 575.595299
22.987777000000012 1626.002628 575.3368
22.81757700000001 1625.792329 575.200798
22.872976000000012 1625.745729 575.263298
22.78357700000001 1625.750528 575.1736980000001
22.672178000000013 1625.55413 575.116997
22.70707900000001 1625.524829 575.155495
22.632778000000012 1625.580629 575.092995
22.48587600000001 1625.415729 575.014198
23.283979000000013 1626.425029 575.646194
23.29977800000001 1626.406528 575.667496
23.48997800000001 1626.796129 575.976204
22.078476000000013 1625.305828 574.864105
21.624076000000013 1624.434129 574.797997
22.44677700000001 1625.371128 574.994499
23.567075000000013 1626.949829 576.268204
23.504678000000013 1626.815029 576.033401
23.746875000000014 1627.337728 577.840401
23.818578000000013 1627.552227 578.318001
23.68117900000001 1627.174129 577.318001
24.151579000000012 1630.264629 576.2574999999999
23.541078000000013 1626.890928 576.1777950000001
23.51257700000001 1626.828729 576.056595
24.49187800000001 1628.080829 578.699799
23.677679000000012 1623.463129 578.653702
26.400076000000013 1635.828529 572.536499
27.01147800000001 1636.452029 572.494804
28.218576000000013 1636.501029 564.1031
28.532877000000013 1636.172229 558.243198
28.483879000000012 1636.194329 558.242001
28.083179000000012 1636.604929 567.441898
28.34627700000001 1636.390329 562.505001
27.96397700000001 1636.496529 564.099201
28.011978000000013 1636.520429 564.098598
27.50557900000001 1636.316129 567.036098
27.81017800000001 1636.349829 564.106098
28.431776000000013 1636.205029 558.239799
27.36967800000001 1636.397729 569.612202
27.51997700000001 1636.550629 569.601002
26.441076000000013 1635.618329 571.129501
27.06957800000001 1636.091829 569.631901
27.995475000000013 1636.630829 569.587399
28.04437600000001 1636.549029 569.591999
28.03217700000001 1636.525529 570.382195
28.033979000000013 1636.516629 569.9865
28.03377700000001 1636.490929 569.988998
28.032879000000012 1636.464829 569.9897
28.030578000000013 1636.474629 570.3862
28.03817700000001 1636.518029 569.594002
28.03067600000001 1636.476529 569.595501
27.95227800000001 1636.283229 569.605598
26.218376000000013 1634.274029 569.716599
26.825376000000013 1634.976129 569.678299
27.41977700000001 1635.663429 569.641201
26.83997900000001 1634.992929 569.677299
27.472679000000014 1635.799229 571.225304
27.76527700000001 1636.149929 571.2015
27.917879000000013 1636.323529 571.189705
24.418277000000007 1632.372428 571.379395
24.438078000000008 1632.3403289999999 569.782398
24.381277000000008 1632.282129 569.783901
24.401678000000008 1632.302529 569.783298
23.04047700000001 1630.901229 572.6175000000001
22.096979000000008 1629.647628 573.347801
23.14307700000001 1631.050229 571.398697
20.903976000000007 1628.739929 572.9888
21.988477000000007 1629.762128 573.0
19.92977700000001 1627.66543 573.307098
19.00867600000001 1626.595729 573.558502
17.95477600000001 1625.800828 573.504799
18.12327500000001 1625.547529 573.727501
17.669576000000013 1624.413229 573.8675000000001
17.142479000000012 1624.082529 573.832802
15.757678000000011 1623.689928 573.694199
16.78217700000001 1623.871929 573.806801
15.89987700000001 1623.39863 573.741699
14.89847600000001 1623.297628 573.625999
14.57227700000001 1619.846729 573.520805
14.47817700000001 1619.911829 573.515999
14.36407700000001 1619.989328 573.5112
15.15377700000001 1623.056329 573.681297
15.01747800000001 1622.999629 573.6698
14.43037700000001 1619.632228 576.2977980000001
14.489677000000011 1619.587728 576.310394
14.51147600000001 1619.572729 576.3144
14.57997800000001 1619.501327 576.3424
14.66437700000001 1619.736728 573.521599
14.778577000000011 1619.566928 573.521904
18.45357700000001 1618.812229 573.688499
15.795377000000009 1617.656526 573.487701
16.07047600000001 1617.461029 573.492897
16.52257700000001 1617.464529 573.520599
15.813178000000008 1617.640129 573.487999
14.85307800000001 1619.326229 573.515297
17.935075000000012 1618.245529 574.435295
14.71307700000001 1619.297229 576.437698
14.79477700000001 1619.515029 573.520599
18.490677000000012 1621.396928 574.611
19.10487900000001 1624.87973 574.722397
18.888578000000013 1625.972229 574.797897
21.786876000000014 1625.357728 574.8267969999999
22.62197600000001 1625.147727 575.266205
22.61537900000001 1625.221529 575.187302
22.601276000000013 1625.234729 575.165199
22.569076000000013 1625.266828 575.113197
22.575479000000012 1625.194028 575.146301
22.48957600000001 1625.336429 575.029205
22.82597900000001 1624.960229 578.683998
22.80647600000001 1624.884529 578.683601
22.74267700000001 1624.999429 577.400902
22.856477000000012 1625.031229 578.685501
22.637876000000013 1625.114028 575.400398
22.61747700000001 1625.075229 575.385796
22.75967800000001 1625.08493 577.1231
28.00467600000001 1636.402329 570.390999
26.01767900000001 1635.436329 572.557495
25.22317800000001 1634.617629 572.590805
24.283876000000014 1633.657829 572.619102
24.22067600000001 1633.730129 572.979095
22.46287700000001 1631.844229 572.640404
20.77497600000001 1630.385829 572.986496
19.29397500000001 1630.55443 573.905396
19.90957600000001 1629.859429 573.298302
18.718076000000007 1628.877429 573.252899
20.09757800000001 1629.661829 572.600403
18.516176000000012 1626.03483 574.944801
18.74607800000001 1630.653929 575.522202
18.591377000000012 1630.684928 575.895302
19.224077000000015 1633.568829 575.531303
17.94767900000001 1626.125728 575.5037
19.084379000000016 1633.610428 575.935097
19.160177000000015 1633.586929 575.7006
16.056078000000017 1635.861729 574.431702
16.166977000000017 1635.911229 574.470505
16.594377000000016 1636.100929 574.687698
15.068177000000013 1632.194829 574.464897
12.498276000000011 1634.277729 574.227402
12.470776000000011 1634.266029 574.234596
12.126576000000012 1634.112729 574.329399
9.838977000000012 1633.097629 573.1539
11.800377000000012 1633.969729 573.319801
11.983078000000011 1634.048629 574.391899
6.7634770000000115 1631.728129 572.8134
11.98857700000001 1627.020929 573.4775999999999
14.53397700000001 1627.773929 573.696701
13.72587700000001 1627.444629 573.633804
15.387076000000011 1628.195829 573.757301
11.11897600000001 1626.934429 573.392105
9.02817700000001 1627.034729 573.162903
10.55897700000001 1626.932529 573.332802
9.95537600000001 1626.949329 573.268906
9.44957700000001 1626.996029 573.210403
10.983977000000012 1629.343129 573.366798
18.822776000000015 1633.769828 576.547897
18.762378000000016 1633.827829 576.5740049999999
18.00657800000001 1630.18933 576.7008969999999
18.846677000000014 1633.752029 576.542297
18.976575000000015 1633.659929 576.513496
19.003078000000016 1633.646328 576.511902
19.054777000000016 1633.622129 576.241295
18.625076000000014 1634.018929 576.672501
18.728077000000017 1633.875529 576.5985029999999
17.83987600000001 1630.21953 576.8564
18.525276000000016 1634.356429 576.836899
16.438476000000012 1631.067329 576.5799030000001
16.635177000000013 1631.033629 576.647301
17.660976000000016 1635.872629 576.650002
17.182178000000015 1636.167129 576.436897
17.242178000000017 1636.151029 576.438599
16.287576000000012 1631.094429 576.566498
16.44297800000001 1631.975329 575.9821010000001
17.182277000000017 1636.167829 575.863701
17.175777000000014 1636.169729 575.720604
16.914676000000014 1636.184729 575.015495
16.925977000000014 1636.184129 574.946198
17.033376000000015 1636.189729 575.203201
16.863977000000016 1636.182529 574.936104
17.23617700000001 1628.501429 573.688301
16.259277000000008 1627.875928 573.630096
15.73427700000001 1627.575729 573.595596
16.06917700000001 1628.183229 573.757202
15.445477000000011 1628.229529 573.761497
18.093679000000012 1621.464729 574.653198
23.17197600000001 1626.186229 575.5205
23.02907700000001 1625.965728 575.3856049999999
22.761877000000013 1625.467128 575.247398
22.54577600000001 1625.291429 575.0746
23.185075000000012 1626.159629 575.567001
23.41307600000001 1626.610828 575.846901
23.43847800000001 1626.65583 575.913399
23.40847600000001 1626.58963 575.878601
22.776779000000012 1625.07563 577.4011
23.66127500000001 1627.129729 577.147499
23.719478000000013 1627.269829 577.623299
23.276376000000013 1625.924728 578.701401
23.44927800000001 1626.509029 577.451202
23.61967800000001 1626.846128 578.7112050000001
23.898576000000013 1627.845829 578.7164
23.877977000000012 1627.764029 578.629898
23.44647600000001 1626.38153 578.706497
26.670879000000014 1636.106129 572.521797
28.26017900000001 1636.460729 564.118698
28.29697600000001 1636.429129 564.121399
28.571378000000013 1636.136429 558.255699
28.260976000000014 1636.461129 564.105701
28.326177000000012 1636.192029 558.239601
27.818277000000013 1636.046829 561.1850009999999
27.967277000000013 1636.197329 561.178501
28.121578000000014 1636.344229 561.172501
28.277776000000014 1636.168729 558.2402
27.660976000000012 1636.198329 564.1116979999999
28.725078000000007 1635.846329 552.358101
28.91167800000001 1635.575629 546.4504009999999
28.96527600000001 1635.575929 546.4501
28.777477000000008 1635.835429 552.359001
28.67157700000001 1635.846629 552.358898
28.61937900000001 1635.834329 552.359798
28.811176000000007 1635.541729 546.454601
28.57107700000001 1635.811129 552.360699
27.36327700000001 1635.896729 564.125198
26.46807600000001 1635.483729 569.663601
24.01617600000001 1633.158228 571.232498
28.637676000000013 1636.047629 558.261501
28.32397800000001 1636.377129 564.125401
28.338077000000013 1636.320629 564.128601
28.651178000000012 1635.932129 558.269001
28.651376000000013 1635.990529 558.265598
28.024976000000013 1636.450329 570.386902
28.006178000000013 1636.346929 569.6012
28.01797600000001 1636.410329 569.598499
28.338277000000012 1636.261929 564.132
28.637178000000013 1635.875529 558.272202
27.988977000000013 1636.326929 569.6031
27.87847700000001 1636.196529 569.6119
25.873077000000013 1633.414929 564.228497
27.43447600000001 1635.680229 569.639999
27.714477000000013 1636.004329 569.622299
27.80387700000001 1636.106829 569.617001
27.730676000000013 1636.022329 569.621399
23.10667800000001 1630.985829 569.801498
21.94387600000001 1629.811529 572.623405
21.87067600000001 1629.742229 572.6231
19.83337600000001 1627.792328 572.962799
20.505678000000007 1628.479028 572.606102
20.86267800000001 1628.793629 572.6147
18.86867700000001 1626.790929 573.2647019999999
18.77927600000001 1626.924129 572.9227980000001
16.621276000000012 1624.156028 573.758995
17.30717600000001 1624.988729 573.678299
14.77617700000001 1623.621128 573.493202
15.61177600000001 1624.004428 573.559303
14.47867700000001 1623.132928 573.590797
14.79677700000001 1622.906829 573.652496
14.32097700000001 1620.00983 573.509201
14.36137700000001 1619.68173 576.283905
14.61507700000001 1619.448429 576.367401
15.31267700000001 1623.0527299999999 576.580299
15.10797700000001 1623.091728 576.481598
15.240977000000008 1618.576229 573.503799
14.86067700000001 1619.265529 573.5138019999999
15.767377000000009 1617.360429 576.271896
15.649478000000009 1617.469829 576.375595
15.621477000000008 1617.88813 573.489502
16.338676000000014 1617.198129 575.175697
15.837078000000009 1617.616828 573.487495
15.936576000000013 1617.239028 576.178703
15.838676000000008 1617.296829 576.2145
16.034877000000012 1617.258029 575.472
16.81107900000001 1617.394128 573.532906
16.68057600000001 1617.373929 573.524399
16.41007800000001 1617.360328 573.508102
16.36947600000001 1617.370229 573.506203
17.23407700000001 1617.63813 573.571602
17.636078000000012 1617.956329 574.425499
17.44437800000001 1617.768228 574.450005
14.74877700000001 1619.213529 576.477798
14.66087700000001 1619.377229 576.401001
15.47807800000001 1623.016828 576.735695
22.650276000000012 1625.167428 575.321899
22.653476000000012 1625.143428 575.4110029999999
22.64077700000001 1625.181728 575.284897
22.932176000000013 1625.656829 575.431999
22.62457800000001 1625.206428 575.222694
22.737377000000013 1625.49493 575.199196
23.183376000000013 1626.110029 575.672302
22.92457500000001 1625.623928 575.531601
23.97907600000001 1633.228528 571.960899
23.947677000000013 1633.322829 572.623405
20.841076000000008 1630.319029 572.621101
21.437978000000008 1630.880828 572.629005
20.14227600000001 1629.702029 572.601303
21.487579000000007 1630.807629 571.980896
18.84547600000001 1628.551629 571.908897
17.423078000000007 1628.244529 573.478401
18.354179000000013 1629.319628 573.742203
18.553978000000008 1629.073328 573.533798
18.83617600000001 1628.743529 572.9182969999999
18.195179000000014 1626.087629 575.186104
14.622277000000013 1629.665928 574.470001
15.500076000000012 1632.120729 574.569595
15.88307700000001 1632.056329 574.797997
16.878477000000014 1636.183329 574.9585950000001
16.183977000000013 1632.008829 575.130096
16.376077000000013 1631.980929 575.5373
15.616177000000011 1627.670429 575.546501
12.144077000000012 1630.104429 574.264999
11.748377000000012 1630.174729 574.283195
12.049176000000012 1634.078029 574.362701
11.585377000000012 1633.871028 574.661995
11.670477000000012 1633.909329 574.589294
8.895777000000011 1632.675929 573.908401
9.126077000000013 1632.778729 574.003098
6.04307700000001 1626.530828 572.775703
6.279477000000011 1626.727128 572.808601
6.48327700000001 1630.140129 572.811005
8.08757700000001 1627.121429 573.047997
7.85597700000001 1627.140129 573.020004
7.80297700000001 1627.141929 573.012703
6.7341770000000105 1626.984928 572.871796
8.528877000000012 1632.512928 573.829697
10.93227700000001 1626.928028 573.373802
10.81997700000001 1626.924829 573.361099
11.77957700000001 1626.63413 573.405899
11.73047700000001 1626.995529 573.452698
12.54397700000001 1627.128829 573.529602
12.84597700000001 1627.187328 573.5578
12.90547700000001 1627.204329 573.562996
13.67907700000001 1627.426829 573.628998
12.99387700000001 1626.864328 573.520203
14.23037700000001 1627.633628 573.673904
15.09507700000001 1628.033029 573.7384030000001
14.68027600000001 1627.454129 573.659904
8.06937700000001 1626.725828 572.985901
9.42117700000001 1626.615329 573.151901
10.06847700000001 1626.57253 573.225899
10.08147700000001 1626.945528 573.281998
18.211477000000013 1630.152429 576.602501
19.054678000000017 1633.621629 576.511002
18.539177000000013 1630.698328 576.2976
18.435878000000013 1630.113129 576.571396
17.726877000000012 1630.241029 577.055099
16.95527800000001 1625.865728 577.023895
18.471376000000017 1634.453429 576.975204
17.677276000000013 1630.251029 577.279404
17.772678000000017 1635.714529 576.814896
16.80647600000001 1631.004328 576.767105
16.074678000000013 1626.637529 576.797897
16.20107600000001 1626.84453 576.922699
17.788179000000017 1635.686929 576.849396
17.796678000000014 1635.670329 576.8713
17.841978000000015 1635.588429 577.031898
18.464477000000016 1634.465728 576.993301
15.902677000000011 1626.418729 576.674301
15.947178000000012 1626.475229 576.706299
15.680977000000011 1627.653829 575.991997
15.55517700000001 1627.890129 573.723999
14.98207600000001 1626.842329 573.309601
14.83767700000001 1627.126928 573.528
23.053775000000012 1625.929428 575.449196
22.912176000000013 1625.698028 575.343102
23.297277000000012 1626.342029 575.751503
23.190076000000012 1626.134229 575.614998
28.82597700000001 1635.812529 552.360001
28.684478000000013 1636.008729 556.1216009999999
28.90347600000001 1635.738829 552.3708
28.61087800000001 1636.099529 558.257801
28.26557900000001 1635.517129 552.3779979999999
27.973978000000013 1635.872629 558.254101
27.67627900000001 1635.574529 558.267502
26.47097600000001 1635.486429 569.662998
27.077076000000012 1634.977229 558.290699
26.76527700000001 1635.294629 564.146797
29.089779000000007 1635.428229 540.509197
29.037675000000007 1635.416529 540.511898
28.85957700000001 1635.564029 546.452099
28.98907800000001 1635.395029 540.514
29.017377000000007 1635.563729 546.4492
29.195577000000007 1635.416329 540.505199
29.14357900000001 1635.427829 540.506702
21.53517900000001 1630.754428 571.251701
24.049177000000007 1633.107129 570.502396
28.93037600000001 1635.687229 552.3741
28.943676000000007 1635.630229 552.377701
28.001077000000013 1635.801329 564.1539
28.32447600000001 1636.205229 564.135399
28.29757700000001 1636.153229 564.137199
28.609975000000013 1635.823629 558.2746999999999
28.009578000000012 1635.127429 558.306702
27.70527800000001 1635.456629 564.168499
27.103077000000013 1634.769128 564.193401
24.61157800000001 1632.092029 564.244801
24.873777000000008 1631.762128 558.388
23.127578000000007 1631.007429 569.801399
23.31877900000001 1630.801129 564.247299
22.635576000000007 1630.506529 569.808102
20.48497500000001 1628.515329 571.364197
21.834879000000008 1629.760028 571.394402
19.796177000000007 1627.852028 572.589104
18.746479000000008 1626.987628 572.551102
19.091276000000008 1627.271327 572.563599
17.71797700000001 1626.21253 572.502098
17.826276000000007 1626.003229 573.213295
17.033777000000008 1625.460229 573.168198
16.314176000000007 1624.731229 573.402199
17.151678000000008 1625.24983 573.456604
16.45457600000001 1624.462129 573.620995
14.58597700000001 1622.831829 573.6342999999999
14.85647700000001 1623.361228 575.440498
14.22837700000001 1619.85123 575.271698
14.22027700000001 1619.856828 575.2453
14.279277000000011 1619.83373 575.250999
14.04797700000001 1619.930929 574.869095
14.11337700000001 1619.916728 574.962097
14.25037600000001 1620.029029 573.505104
14.29277800000001 1619.780128 575.711998
14.33787600000001 1619.695728 576.282005
14.282377000000011 1619.721828 576.281204
14.88367700000001 1623.132528 576.4508969999999
14.26417700000001 1619.827829 575.384102
14.277777000000011 1619.813428 575.4646
15.03687600000001 1623.096929 576.673805
15.567177000000008 1617.580928 576.506004
14.80557700000001 1618.952428 576.5867
15.59017700000001 1622.990028 576.934502
14.83467700000001 1618.89093 576.650803
14.779277000000011 1619.072929 576.537201
15.751677000000008 1617.373929 576.284599
15.672077000000009 1617.446029 576.348801
15.605677000000009 1617.528928 576.445297
16.12577600000001 1617.434728 573.4947970000001
16.99127700000001 1621.60993 575.731796
16.272577000000013 1617.194929 575.294701
16.212976000000012 1617.193828 575.446098
16.02297700000001 1617.18873 576.147598
16.148178000000012 1617.138629 576.135803
16.153177000000014 1617.166429 575.867699
16.89787600000001 1621.390529 576.3928989999999
16.97477700000001 1617.468029 573.546501
17.073276000000007 1617.512329 573.555199
16.99147800000001 1617.378429 574.558105
16.957576000000014 1617.360727 574.5749969999999
16.75517600000001 1617.379629 573.528702
16.819677000000013 1617.289428 574.644104
16.657777000000014 1617.243629 574.771996
17.109277000000013 1617.45203 574.509804
17.21807600000001 1617.54673 574.479401
17.12087600000001 1617.544628 573.559799
16.53967800000001 1617.361028 573.5149
16.54977800000001 1617.216829 574.864799
16.46797700000001 1617.355428 573.510803
16.639276000000013 1617.23913 574.7883
16.380777000000013 1617.200229 575.100403
16.43267600000001 1617.203229 575.007103
17.72067600000001 1621.523328 574.800201
17.040477000000013 1617.40283 574.5336
17.39827700000001 1621.569528 575.0409999999999
22.924877000000013 1625.67703 575.385704
23.083177000000013 1625.905628 575.602295
17.42677700000001 1627.549529 571.834702
18.78627700000001 1628.595529 572.543602
18.900676000000008 1628.67873 572.5504
18.902479000000007 1628.518729 571.179001
17.752578000000007 1627.839129 572.487099
20.245376000000007 1629.604228 571.227699
21.27767900000001 1630.393729 569.785801
17.57737700000001 1628.040529 573.194801
16.574476000000008 1627.396429 573.131401
17.68947800000001 1627.902628 572.8580019999999
16.76797600000001 1617.271429 574.677803
16.93507700000001 1621.600528 576.132301
17.791175000000013 1626.145929 575.877205
17.149377000000012 1621.598829 575.358902
17.73677800000001 1626.148328 576.278595
14.31307700000001 1627.911929 574.473404
13.98917700000001 1623.55133 574.473801
14.74467700000001 1627.835329 574.578003
14.369977000000011 1623.475229 574.7024
15.126476000000011 1627.765429 574.8069
15.425677000000011 1627.70823 575.1388019999999
14.66787600000001 1623.41023 575.033897
11.06237800000001 1623.969928 574.1315
10.96157700000001 1625.709928 574.2201
11.35687700000001 1625.640728 574.201698
11.371577000000013 1630.240929 574.405602
11.039278000000012 1630.299629 574.6241
10.774977000000012 1630.346929 574.923805
11.383777000000013 1633.781629 574.8909
11.353977000000013 1633.768129 574.9244
8.735377000000012 1629.394928 574.143997
9.345177000000012 1632.876029 574.140404
11.294277000000012 1633.741729 575.017097
8.341877000000013 1629.466829 573.9191969999999
10.58367700000001 1625.773328 574.342499
5.690877000000009 1625.645029 572.7183
5.5356770000000095 1624.762828 572.686699
5.751177000000009 1625.984428 572.730499
5.740177000000009 1625.922628 572.7275999999999
5.6061770000000095 1625.162729 572.7008060000001
7.152077000000009 1624.703828 573.721497
5.92687700000001 1626.98373 573.580605
7.646077000000011 1632.120129 573.7323
6.763377000000011 1631.727429 573.633499
5.795877000000011 1626.237829 572.739494
5.82347700000001 1626.271829 572.743103
6.01447700000001 1626.506828 572.771904
6.3370770000000105 1626.242828 572.757195
6.3149770000000105 1626.220928 572.7547
6.34107700000001 1626.778329 572.818001
6.58597700000001 1626.90723 572.852196
6.54297700000001 1626.883928 572.845901
6.77247700000001 1626.544729 572.815903
6.884277000000011 1627.027428 572.892204
7.17157700000001 1627.108629 572.930504
7.23667700000001 1627.116729 572.939705
7.38107700000001 1627.135128 572.958
7.96907700000001 1627.132529 573.034103
7.591977000000011 1627.146029 572.985695
10.97597800000001 1626.195329 573.166901
10.94867800000001 1626.56483 573.320496
11.83887700000001 1626.270029 573.258202
12.62137700000001 1626.777929 573.486099
12.70907700000001 1626.421628 573.344704
13.84267700000001 1627.118429 573.593399
13.09387600000001 1626.511829 573.380798
13.97237600000001 1626.776929 573.457703
9.40577700000001 1626.239128 572.985199
17.23667700000001 1625.823429 576.669998
17.44197600000001 1625.789228 576.571899
16.673177000000013 1621.42913 576.424301
17.069477000000013 1625.85013 576.825195
16.467376000000012 1621.460029 576.521904
17.66667700000001 1625.750728 576.540298
16.904876000000012 1625.869928 577.249298
16.452377000000013 1623.304729 577.162102
16.184177000000012 1621.492929 576.876099
16.299276000000013 1621.482128 576.677803
17.457077000000012 1629.002529 577.271004
18.431877000000014 1634.524429 577.183495
17.836376000000016 1635.598429 577.012794
16.277177000000012 1626.956727 577.015198
16.938877000000012 1630.983129 576.930099
16.304777000000012 1627.037529 577.044701
16.34407800000001 1627.128929 577.1194
16.179477000000013 1626.800529 576.898994
16.20627700000001 1626.82323 576.937302
16.018077000000012 1626.565328 576.756996
16.10497600000001 1626.616529 576.8312
16.12217700000001 1626.69823 576.832001
18.436876000000016 1634.515129 577.130898
15.70247700000001 1626.240129 576.593498
15.75427600000001 1626.216629 576.611298
15.802177000000011 1626.329229 576.633904
15.60747700000001 1626.164129 576.565605
15.645177000000011 1626.189729 576.571198
15.56807800000001 1626.137029 576.560799
15.83517600000001 1626.296028 576.646698
15.39247700000001 1626.017528 576.537201
15.500377000000011 1626.091228 576.552101
15.42707700000001 1626.000829 576.5438
15.33757700000001 1625.706727 576.5308
16.43127800000001 1627.608029 573.417099
15.897178000000007 1627.302329 573.379501
16.03367800000001 1627.087029 573.092499
14.09327800000001 1626.481929 573.234001
29.243879000000007 1635.392629 540.505398
29.06577800000001 1635.541429 546.449398
28.94907700000001 1635.682829 550.5246999999999
28.861877000000007 1635.790229 552.367699
28.50327800000001 1635.249329 546.476799
27.96577600000001 1635.220129 552.394001
28.20177600000001 1634.954429 546.497398
24.653679000000007 1632.614229 558.3479
29.222179000000004 1635.348829 534.527201
29.169777000000003 1635.337729 534.528999
29.121076000000006 1635.316329 534.5334
28.679676000000008 1635.104329 540.5428009999999
29.275579000000004 1635.347529 534.5235
24.639576000000012 1633.632529 569.755699
24.05527600000001 1633.057329 569.767101
22.70367600000001 1631.728129 569.792599
28.94297600000001 1635.571729 552.381401
29.181577000000008 1635.299229 546.464897
28.928577000000008 1635.514529 552.383801
28.309976000000013 1635.473329 558.292
28.29197700000001 1634.765628 552.425499
28.900976000000007 1635.462929 552.387402
27.399078000000014 1634.439029 558.333401
26.413076000000004 1632.720329 552.508598
26.152977000000007 1633.084129 558.369801
23.55677600000001 1630.478629 558.390896
20.69287600000001 1628.222329 561.257
22.19267600000001 1629.245029 558.370899
21.989376000000007 1629.546329 564.230801
21.826376000000007 1629.739229 569.801899
21.80457800000001 1629.718229 569.801601
20.485979000000007 1628.513929 569.778099
21.14857600000001 1629.096129 569.796101
19.80717600000001 1627.918028 569.7603
20.614677000000007 1628.341629 564.1931
19.09067900000001 1627.297129 572.0994029999999
17.618776000000008 1626.178628 572.016495
17.74567800000001 1626.143928 572.8731
17.613678000000007 1626.142229 572.496902
16.208976000000007 1624.9490289999999 573.115601
15.48997700000001 1624.283428 573.343399
14.67547700000001 1623.908029 573.281303
14.36917700000001 1623.461029 573.4590000000001
14.602477000000011 1624.141429 573.003197
14.487377000000011 1622.79643 573.625404
14.03077800000001 1620.079229 573.490196
14.17897800000001 1622.686128 573.5989
13.775178000000011 1622.567628 573.562996
13.69127600000001 1622.874929 573.522202
14.15977600000001 1619.896129 575.054901
13.97497700000001 1619.948228 574.764099
14.07837700000001 1620.075328 573.4935
13.99837700000001 1620.077329 573.487305
14.58307700000001 1621.426929 576.374802
14.28757700000001 1619.751228 575.996704
14.91927700000001 1623.333528 575.885498
15.26047800000001 1625.268629 576.520302
15.27527800000001 1625.352029 576.522202
15.22467800000001 1625.065229 576.514999
15.25387600000001 1625.231128 576.518898
15.05417700000001 1624.099428 576.485695
14.97567600000001 1623.113029 576.550598
15.06377700000001 1623.086828 576.8081970000001
15.37597700000001 1625.031929 576.738297
15.510776000000009 1617.663028 576.651199
15.63817800000001 1622.971729 577.158195
14.85527700000001 1618.843528 576.721298
14.84267700000001 1618.873828 576.672401
15.473576000000008 1617.709629 576.8116
15.503478000000008 1617.674129 576.669899
16.214376000000012 1617.190629 575.468399
16.156276000000013 1617.173629 575.790794
18.94997600000001 1628.498229 570.448196
17.489076000000008 1627.526529 571.1048969999999
16.686678000000008 1627.097229 571.786797
16.74037700000001 1627.192729 572.419205
17.54057700000001 1627.514328 570.374298
18.793975000000007 1628.347229 569.708099
20.01597700000001 1629.302429 569.756599
21.87107600000001 1630.5912289999999 564.1967999999999
20.316177000000007 1629.562629 569.7629009999999
20.308076000000007 1629.554729 569.763302
20.57807900000001 1629.492929 564.1689
21.57567600000001 1630.717029 570.521706
21.59117700000001 1630.687329 569.787701
17.35767700000001 1627.587329 572.460899
16.67937600000001 1627.254229 572.7914049999999
13.558277000000011 1623.630828 574.368599
13.72247700000001 1619.945129 574.509605
13.48917600000001 1619.856128 574.362198
13.746076000000011 1619.946529 574.531105
13.932876000000011 1619.95693 574.704803
10.57027700000001 1621.178228 574.014198
10.17457700000001 1621.247428 574.0327
9.045577000000012 1629.337529 574.477295
11.186777000000012 1633.693229 575.252403
9.424677000000012 1632.911329 574.190102
9.577878000000013 1632.979029 574.327805
11.156376000000012 1633.679929 575.318901
8.002577000000011 1629.527229 573.833305
9.984377000000011 1625.864028 574.859901
10.250377000000011 1625.82533 574.560898
9.46177700000001 1621.353429 574.372902
5.662277000000009 1625.482229 572.712799
5.644377000000009 1625.380428 572.7089
5.55737700000001 1624.886129 572.690697
6.00667700000001 1625.792728 572.712898
3.8654770000000083 1615.29253 572.848701
6.461877000000008 1620.789428 573.511696
4.885877000000009 1621.079729 573.3181
5.529377000000009 1624.726728 572.685799
5.618577000000009 1624.49683 572.694199
7.50417700000001 1626.701129 573.767502
6.382177000000009 1625.672328 572.6063
6.157777000000009 1626.040328 572.733398
6.628877000000009 1625.972728 572.627899
6.52577700000001 1626.399028 572.783005
6.73737700000001 1626.527729 572.811905
7.01627700000001 1626.641529 572.848595
7.15977700000001 1626.26943 572.687897
7.3084770000000105 1626.710628 572.8865049999999
7.61807700000001 1626.738128 572.927399
7.64887700000001 1626.345329 572.751701
7.39277700000001 1626.323528 572.718895
11.01107800000001 1625.878328 572.920303
10.07817700000001 1625.88013 572.810097
10.06687600000001 1626.19873 573.064301
9.40627600000001 1625.92003 572.723701
11.90087700000001 1625.956928 573.020096
12.79437700000001 1626.114828 573.1129
8.06557700000001 1626.337629 572.809601
7.691577000000009 1626.018629 572.473999
8.07867700000001 1626.012329 572.533798
16.392076000000014 1623.539529 578.6129
16.34467700000001 1623.270627 578.608101
16.13267700000001 1621.491529 577.1007
15.466577000000008 1617.713129 576.878403
18.353376000000015 1634.662729 578.627098
17.358175000000013 1629.018629 578.7164
18.391977000000015 1634.593929 577.912003
17.44037600000001 1629.484828 578.708099
17.022077000000014 1630.970028 577.123695
16.37807600000001 1627.214829 577.195801
16.38327800000001 1627.227629 577.223305
16.214677000000012 1626.810628 576.959198
16.35677700000001 1627.162129 577.145996
16.32517800000001 1627.085129 577.083496
16.13147700000001 1626.682428 576.855202
16.093576000000013 1626.625928 576.812302
16.03077700000001 1626.421129 576.808304
15.997676000000013 1626.445528 576.750801
16.015876000000013 1626.433328 576.778099
15.976577000000013 1626.458929 576.7258
15.87037700000001 1626.277029 576.6759030000001
17.896476000000014 1635.489229 577.883995
17.857977000000016 1635.559629 577.165001
17.125776000000013 1631.40773 577.2647019999999
15.66537700000001 1626.138029 576.582199
15.56837700000001 1626.060529 576.558899
15.36427700000001 1625.857429 576.533195
15.39717700000001 1625.839729 576.540695
15.46277800000001 1625.983129 576.550201
15.63307600000001 1626.032028 576.587204
15.39587700000001 1625.666528 576.5550000000001
15.30997700000001 1625.54953 576.527397
15.10427700000001 1626.620029 573.018501
14.27827700000001 1626.10293 572.5867
14.19727800000001 1626.25163 572.937599
13.18967700000001 1626.208229 573.151405
29.25787900000001 1635.380629 541.540401
29.114677000000007 1635.502629 546.2341
29.10607900000001 1635.511729 546.4535979999999
29.320978000000007 1635.317729 540.5074999999999
29.28167700000001 1635.365929 540.506199
29.143377000000008 1635.466729 546.4557
27.76817700000001 1634.2221279999999 540.622601
28.37637700000001 1634.811729 540.5699999999999
27.59727800000001 1634.362429 546.539101
27.363878000000007 1634.625629 552.424599
24.926576000000004 1632.278029 552.508202
23.41367900000001 1631.463929 558.355499
26.15357700000001 1633.441928 552.473
24.35127600000001 1632.906828 564.198399
24.06187600000001 1633.064429 569.766998
23.123777000000008 1631.735328 564.207195
28.809677000000004 1635.028329 534.565201
28.598775000000003 1634.674428 528.5646
28.503578000000005 1634.736928 534.595301
29.327676000000004 1635.335629 534.5224
29.377777000000005 1635.279329 528.4946
29.16957800000001 1635.414129 546.458202
29.18267800000001 1635.358029 546.461098
29.35917600000001 1635.207929 540.512501
29.23357500000001 1635.103629 543.501598
29.16677600000001 1635.242829 546.468201
29.02847600000001 1635.310229 549.433399
29.13907600000001 1635.191229 546.471302
28.59747700000001 1635.112329 552.407001
28.52117700000001 1634.493228 546.5187
28.722877000000008 1634.958629 549.4543
26.522676000000004 1632.567229 549.573898
27.67357800000001 1634.076529 552.457199
25.117376000000004 1631.398229 552.540897
25.216776000000007 1631.246829 549.617001
23.775476000000005 1630.121829 552.551102
22.288578000000008 1629.074029 555.4505
22.372978000000003 1628.912328 552.5346979999999
19.181076000000008 1627.208628 564.133202
19.08527700000001 1627.327528 571.308998
19.06857800000001 1627.326328 569.729698
19.094576000000007 1627.346429 569.731098
20.462177000000008 1628.493128 569.777901
17.62267600000001 1626.22063 571.2258
16.96087600000001 1625.60643 572.829399
16.12627800000001 1625.179428 572.414001
16.144676000000008 1625.101129 572.780396
15.39927700000001 1624.50823 573.061096
14.56147700000001 1624.306329 572.673401
14.21617800000001 1623.987928 572.9729
14.27957600000001 1623.751028 573.249901
13.60757700000001 1623.209629 573.394302
13.54127700000001 1623.505928 573.188499
12.84857700000001 1623.021629 573.326401
12.26337700000001 1622.249828 573.4227980000001
12.96537600000001 1622.36783 573.489502
13.54947700000001 1622.501628 573.543205
12.90567700000001 1622.682029 573.450798
15.28277700000001 1625.396129 576.522598
15.32117700000001 1625.364229 576.5588
15.23447800000001 1624.055128 576.843399
15.38837700000001 1625.029329 576.770401
15.347877000000013 1623.980329 578.6259
15.48547700000001 1624.983228 578.1008
15.35157700000001 1625.038829 576.673805
15.38917600000001 1625.18363 576.682404
15.33387700000001 1625.224128 576.592804
15.29597700000001 1625.05063 576.588005
15.314377000000011 1625.046129 576.616302
15.174778000000012 1622.997829 578.591202
15.265876000000011 1620.858728 577.062805
15.303977000000012 1623.731529 578.617104
14.881977000000008 1618.782529 576.823296
14.893077000000009 1618.745929 576.939499
15.989977000000007 1626.671129 571.003899
16.67977700000001 1626.986429 569.584801
16.75077600000001 1627.078029 571.058304
17.58327600000001 1627.519429 569.6427
17.56827700000001 1627.510828 569.6428989999999
17.64257600000001 1627.554529 569.646797
16.617878000000008 1627.122529 572.409004
18.983877000000007 1628.495829 569.7159
18.405176000000008 1627.994029 567.0284
18.97237500000001 1628.486429 569.715
19.101776000000008 1628.485428 567.060101
20.70067600000001 1629.413828 561.2369
21.597276000000008 1630.692628 569.787201
16.134176000000007 1626.943428 572.750702
15.84907700000001 1626.709629 572.345795
12.82187700000001 1619.45483 574.155899
13.53927800000001 1623.524229 574.363098
13.19897700000001 1619.68433 574.240402
13.73837700000001 1620.050828 573.465401
13.78107700000001 1620.061628 573.469803
13.675976000000011 1619.934129 574.475601
13.31717700000001 1619.755029 574.290398
11.321276000000008 1618.530326 573.962898
12.07147800000001 1618.992029 574.060699
9.62507800000001 1617.785129 573.791298
10.001577000000008 1617.95343 573.800598
9.79607600000001 1621.306728 574.155098
9.558977000000008 1617.754829 573.800102
9.426977000000008 1617.694229 573.818703
10.596477000000013 1630.377429 575.282906
10.517176000000012 1630.392128 575.676697
8.19137700000001 1624.495229 574.364601
7.584177000000008 1620.593229 574.312698
7.883477000000009 1624.562128 574.031601
7.4697770000000085 1620.437328 574.160995
7.452577000000009 1620.413928 574.138199
7.4118770000000085 1620.358428 574.084099
7.112377000000008 1620.023729 573.8162
9.991277000000013 1633.161929 575.2239
9.689377000000013 1633.028629 574.469795
9.782477000000013 1633.069829 574.589401
9.988977000000013 1633.160429 575.197601
9.960977000000012 1633.148829 575.023804
7.49097700000001 1624.639928 573.806099
6.958977000000009 1619.864429 573.722397
6.28977700000001 1625.480129 572.600899
5.8679770000000095 1625.355628 572.692795
5.9205770000000095 1625.579029 572.701096
6.222077000000009 1625.176229 572.602196
6.222877000000009 1625.00473 572.607498
5.851277000000009 1625.172229 572.689796
5.863577000000009 1624.946529 572.690697
6.02947700000001 1625.83773 572.716103
5.8801770000000095 1624.8480279999999 572.6922
5.943177000000009 1624.62903 572.699402
6.947277000000009 1616.700929 572.5625
9.109777000000008 1618.71323 572.946404
8.28497700000001 1622.61383 573.006805
7.358177000000009 1622.979829 572.900101
7.0802770000000095 1623.119129 572.866997
6.952277000000009 1623.189029 572.852798
6.99487700000001 1623.165529 572.856796
6.90947700000001 1623.213529 572.846497
4.6153770000000085 1619.545928 572.392197
6.865877000000009 1623.239629 572.841599
6.82107700000001 1623.266729 572.8367
7.60457700000001 1622.869228 572.929199
6.775077000000009 1623.294828 572.831505
4.745877000000007 1615.673229 573.0019
3.880177000000008 1615.375728 572.032997
5.626577000000007 1616.0527280000001 573.153702
6.302377000000009 1619.885128 573.462898
5.674277000000009 1624.353229 572.700096
6.486277000000009 1625.822328 572.614601
6.699577000000009 1625.532529 572.398697
6.61147700000001 1625.95623 572.626099
6.77637700000001 1626.087028 572.642799
6.94117700000001 1626.182029 572.661705
6.96837700000001 1626.195129 572.664696
7.296577000000009 1625.958229 572.423195
7.480277000000009 1625.999929 572.445496
9.42287700000001 1625.681228 572.3874969999999
8.10737700000001 1625.776229 572.178902
11.051377000000011 1625.637428 572.599602
12.87197700000001 1625.877929 572.8081970000001
7.5638770000000095 1625.767728 572.0924
15.521577000000011 1624.964729 578.655998
15.727377000000011 1622.900329 578.591202
15.363678000000009 1617.70693 578.313095
14.918776000000008 1618.603229 577.647705
17.227478000000012 1631.408128 578.702995
17.934877000000014 1635.417929 578.603798
16.597377000000012 1627.860829 578.642395
16.613376000000013 1627.924129 578.709801
16.905277000000012 1629.580029 578.7071
16.33407700000001 1626.924528 578.697701
16.161277000000013 1626.460729 578.689499
16.542577000000012 1627.662229 578.3592
18.144176000000016 1635.040329 578.614998
16.391677000000012 1627.249129 577.258698
16.456777000000013 1627.407129 577.784798
16.16837800000001 1626.53363 578.0142969999999
16.522077000000014 1627.596129 578.237495
17.048177000000013 1630.967029 577.274696
16.370678000000012 1627.202829 577.170296
16.38697600000001 1627.236829 577.241905
16.327377000000013 1627.074829 577.102097
16.22147700000001 1626.792329 577.002602
16.27927700000001 1626.948129 577.034996
16.127977000000012 1626.591228 576.893394
15.991077000000011 1626.003429 578.681396
16.276977000000013 1626.940229 577.054802
16.528177000000014 1627.615428 578.273499
16.129976000000013 1626.569128 576.967796
16.114778000000012 1626.60783 576.850899
16.144277000000013 1626.66123 576.886398
15.901376000000013 1626.259529 576.710999
16.12237700000001 1626.599729 576.871902
15.947376000000013 1626.225429 576.794395
15.927276000000013 1626.241828 576.7509
15.71877700000001 1626.112728 576.612305
15.536977000000011 1625.946628 576.564697
15.60717600000001 1625.912229 576.6066969999999
15.69327600000001 1626.003229 576.627296
15.430277000000011 1625.821428 576.5509950000001
15.49537700000001 1625.784629 576.581802
15.36057700000001 1625.513929 576.555901
15.40807700000001 1625.478729 576.5942
15.06167800000001 1626.336128 572.2761
15.19607700000001 1626.473829 572.671501
13.274777000000011 1625.972728 572.849304
13.34387700000001 1625.821228 572.495003
12.93657700000001 1625.726829 572.4522019999999
29.375677000000003 1635.312229 534.521799
29.414579000000003 1635.279429 534.518799
29.429678000000006 1635.266329 528.4929999999999
29.40587600000001 1635.286429 535.073198
29.489875000000005 1635.126629 534.525299
29.34667600000001 1635.265729 540.509499
26.646778 1632.999129 534.7661
27.889377000000003 1634.152729 534.6548
25.141979000000006 1632.029429 546.6687009999999
26.380478000000004 1633.183829 546.610901
22.256277000000008 1630.210829 555.425701
25.042976000000007 1632.135128 549.588799
23.668577000000006 1631.146629 552.5228
23.774078000000006 1631.014529 549.610802
29.454376000000003 1635.209529 523.091801
29.324276000000005 1635.280929 528.497
29.407678000000004 1635.213629 523.091101
29.368677000000005 1635.205429 523.0919
29.271877000000003 1635.270129 528.499401
29.339079000000005 1635.199429 523.090799
29.223075000000005 1635.249029 528.5037
29.243776000000004 1635.136329 523.0909
29.301675000000007 1635.178829 523.0912989999999
28.960277000000005 1634.879929 523.0909
28.909176000000006 1634.963829 528.5345
27.974876000000005 1634.099129 528.622
29.512077000000005 1635.195129 523.091499
29.35807800000001 1635.149629 540.516197
29.472576000000004 1635.011729 534.5322
29.342979000000007 1635.092429 540.519699
28.83157900000001 1634.840729 546.495998
27.978376000000008 1633.719029 543.603699
27.893377000000008 1633.804629 546.561798
27.79217700000001 1633.923028 549.5131
26.612777000000005 1632.451229 546.6357
23.860878000000003 1629.976228 549.6370009999999
23.922676000000006 1629.872729 546.7239
20.76867600000001 1628.083128 558.3279
21.57247700000001 1628.493128 555.430901
22.439579000000005 1628.778928 549.625195
19.229375000000008 1627.123129 561.1931
19.12667800000001 1627.274729 567.077301
19.97037700000001 1627.659929 561.228699
17.61037600000001 1626.240129 569.6549
18.60237800000001 1626.952028 569.709999
16.93717700000001 1625.679128 572.460503
16.85187700000001 1625.663229 571.964104
16.04697800000001 1625.136329 572.409195
15.224477000000011 1624.70063 572.358604
15.34587700000001 1624.66773 572.728302
14.18187800000001 1624.156528 572.646301
13.49647800000001 1623.74883 572.915794
12.80657700000001 1623.324129 573.124802
13.50577700000001 1619.950128 573.441895
12.91027700000001 1622.355329 573.484795
12.12177700000001 1622.555629 573.376297
12.15577800000001 1622.239229 573.412796
11.34097700000001 1622.494728 573.2994
15.39267600000001 1625.300529 576.641197
15.35287700000001 1625.293128 576.5951
15.36117700000001 1625.331329 576.596603
15.42327700000001 1625.149229 576.784004
15.40527600000001 1625.024028 576.872704
15.50537700000001 1625.060428 578.101799
15.44477700000001 1625.195528 576.7946010000001
15.41067700000001 1625.240629 576.687302
14.944777000000009 1618.461528 578.357399
15.33597700000001 1620.679929 578.4888
